# 3D point list with one line of data per point:
#   POINT3D_ID, X, Y, Z, R, G, B, ERROR, TRACK[] as (IMAGE_ID, POINT2D_IDX)
# Number of points: 357, mean track length: 8.0314308258811149
20021 -0.49913884582002443 1.5674497213190408 0.87038769923559423 131 83 44 0.55757392004040252 242 102 241 86 239 74 238 101 278 149 235 122 231 60
20023 -0.64726698721674136 0.57619502448909843 0.44488934400285829 148 128 123 0.34173538932656089 242 57 241 153 240 168
20024 -0.04853810535747051 1.1362778086426659 1.0180360420813444 137 96 81 0.83618455245087897 242 267 241 164 240 72
20025 -1.0968041613569601 1.0837388007430877 0.99600325951582858 172 145 132 0.46331400535257994 244 76 240 186
20026 -0.6539450782044125 1.8762660543773166 1.2900264690131482 181 157 159 0.012054247483931703 242 197 241 184
20027 -0.2409127007713493 0.17014972687556051 0.88247356216679096 112 83 74 1.3173805598973392 241 185 239 7
20029 -0.26908922919997952 0.23914730586032967 0.85052815746170285 134 141 128 0.62565072839260516 244 98 241 191 240 197 239 165
20030 -0.61820050488202993 0.55361031458728271 0.39867686036540689 120 136 133 0.51620039639619308 244 125 241 232 243 49
20031 -0.49642008164636808 1.5810659771809268 0.8634159645976851 224 177 138 0.63165527146292455 242 270 244 197 245 176 241 242 243 211 246 200 240 251 239 226 238 211 237 198 278 222 236 180 235 155 232 190 277 189 233 149 276 184 230 138 229 150 228 164 227 137 279 228
20032 -0.71745704387636033 1.6622495413679299 0.66667219520597898 191 128 124 0.75135527414890557 243 244 244 201 241 248
20033 -0.70595513203105242 0.87273704574849686 0.64039429543273307 55 29 18 0.69597897847707624 242 292 241 265 240 246 238 206 236 175 232 186 231 193
20034 -0.74757115318950362 0.87715569513926195 0.60656143099674065 105 62 47 0.801000432260906 242 294 241 267 240 273 239 250 238 237 237 249 236 177 235 151 234 157 232 149 231 220 275 62
20035 -0.65534966589448806 0.75147550651176309 0.58918656698204364 108 127 124 1.8493792439100991 242 287 241 286 240 290
20036 -0.46679534106644038 1.5687580749901493 0.93559122999400712 102 60 33 1.0249267724142721 242 326 241 302 240 304 239 291 238 293 237 284 278 281
20037 -0.61897059754346506 0.81101218386923868 0.57934642058127306 162 183 181 1.2689689330448237 242 334 241 307 240 318 239 294 238 297 237 288
20038 -0.55128466407439214 1.5647885894824187 0.79374226421750482 139 91 54 1.7850853092630687 242 363 241 327 240 325
20040 -0.84319313867525414 0.90470766696921401 0.72287439543983145 139 87 64 1.0027658957311423 242 362 245 287 241 332 240 333
20042 -0.4865956402459678 0.82067578624368409 1.2711641601942447 117 58 35 1.9417155439500253 240 340 239 321 238 317 237 308 236 259 235 239 242 372 234 221 232 283 277 297 233 279 276 284 231 290
20043 -0.77633664501720978 0.79011603267782504 0.66549366894962114 165 167 156 1.076653675610433 121 75 119 109 118 40 115 30 106 29 108 31 130 111 129 112 128 111 126 26 125 140 124 24 120 120 121 162 119 181 113 110
20044 -0.74780367019402472 1.5694503294066451 0.79705524546919793 189 174 165 1.539156147911759 151 154 150 193 149 170 148 157 147 144 147 157 146 171 145 166 144 159 144 175 143 157 142 182 141 192 139 186 139 211 140 160 138 177 137 221 137 235 136 243 135 211 270 219 134 187 133 157 133 169 271 177 132 207 127 114 126 144 128 116 125 145 124 154 123 151 120 189 121 140 119 215 118 191 122 158 117 162 115 144 113 156 116 176 114 154
20045 -0.81447400338238363 1.6082090572699776 0.69196480667908911 219 209 202 2.0133424078588615 143 176 139 228 140 177 138 176 137 234 136 242 134 200 133 184 132 217 126 171 125 183 124 189 123 162 120 217 121 187 118 190 122 166 116 192 115 161 116 127 117 161 113 155 112 164 111 130 109 143 110 168 107 125
20046 -0.87434409759710086 1.8580372550386814 0.84568711409355157 147 102 105 1.7223430075568993 109 145 113 160 108 144 107 148 112 201 109 169 139 124 135 58 133 121 129 57 128 122 126 59 125 99 119 124 118 195 124 176 122 35 122 134 117 54 116 100 113 73 112 123 112 168 111 48 108 73 106 107 107 61
20047 -0.79033986762397646 1.716926976948675 0.84485381886586242 154 86 85 1.6971068187026559 153 252 151 213 150 248 149 234 146 210 145 226 144 218 143 197 142 203 141 209 139 262 162 141 161 166 160 171 163 62 159 259 158 180 157 179 156 223 154 267 140 197 140 205 138 205 137 264 136 275 135 243 270 243 134 237 133 204 132 246 130 209 131 257 129 219 128 202 126 223 127 176 125 226 124 230 123 202 119 271 118 249 122 207 117 208 121 235 116 238 271 202 152 262 115 214 120 270 113 229 112 236 114 222
20048 -0.31613675249989936 0.22608487187886442 0.6158188627131892 154 167 162 1.4592872159839916 134 160 135 138 133 127 130 132 131 183 129 139 128 128 126 150 127 98 125 154 124 163 123 136 120 171 121 149 119 196 118 179 122 141 117 142 116 157 116 71 112 138 111 71 109 87 110 129 113 99 115 76 106 6 107 5 108 5
20049 -0.74263173873870558 0.61795726431277742 0.60089531329831336 156 166 159 1.2396460052632972 369 19 372 24 479 79 370 121 368 130 374 26 378 149 480 119 345 27 352 25 346 27 354 22 353 16 355 18 356 19 362 68 360 23 364 75
20050 -0.60634706931039783 0.61080409654572654 0.37644850006736441 182 199 193 0.85397522915899771 440 114 484 129 441 1
20051 -0.2827951124598192 0.33652101985934596 0.80576177844008035 98 69 55 1.1578528988841461 439 31 441 21 442 31 448 32
20052 0.86639452223881008 0.89925414129006254 1.5284829121820178 199 191 186 1.6925827586972544 439 48 449 23 450 22
20053 -0.22558193068446086 0.16855521699908516 1.21237533257967 65 17 2 1.7888378168110648 436 190 441 40 432 84 442 142 443 165 445 178 450 88 449 86
20054 0.41062909766752248 0.52254671078832782 1.716540667102902 139 134 114 0.62504693573836201 439 69 440 144 441 49 483 45 442 70 443 89
20056 -0.22133638224489996 0.20988975676096225 1.0536340622574758 81 34 17 1.6822189874523545 439 110 441 74 483 19 444 21 449 82
20058 -0.69977928674455081 0.62824313978341839 0.43183210051444076 204 214 210 0.30687928518304447 438 133 441 85 486 166
20060 0.33577465047526156 0.54469620832695298 1.4898993352401397 135 133 120 0.88329268236091762 439 201 484 239 441 100 442 179
20061 0.47250063273502707 0.40780322156687571 1.6567077596485145 168 165 148 0.9671753571565388 439 159 441 104 442 66
20065 0.1314236772199335 0.19680900822569852 1.2996476988557601 180 180 180 2.161177540961956 439 254 440 241 441 169
20067 -0.97295243666884912 0.11676372777680412 2.1479661431711805 176 167 165 0.33060501122280905 439 256 441 174
20068 -0.52081717949264816 0.32459943620389919 1.2757753012775752 104 50 31 2.7195318090234615 439 258 440 246 483 262
20070 0.33266512743976351 0.99936268302606757 1.7028480424893941 100 51 30 2.6132140780540043 437 71 483 42
20071 0.070178184919570924 0.71435510859042206 1.8562844292784977 107 75 62 0.32935182947149388 435 197 483 54
20072 -0.72196828896494902 0.67210572013561865 0.44655919886283102 163 169 168 0.46383501354777662 485 166 483 60 486 170
20075 0.043921008958547926 0.23190082893242922 1.2366577731405404 72 46 41 0.65764739092109603 483 80 442 50
20076 0.4215567239827433 0.44528733072230664 1.5916118469139073 123 115 87 0.27854087859309717 437 68 483 90
20077 0.50773478447134124 0.54078181982661 1.6994967646156154 130 128 107 0.75982418815793418 484 166 483 92 481 154
20078 -0.94952490827585323 0.32476444453268422 1.6420812429021743 172 149 135 0.19377122026768506 432 129 483 97
20079 -0.59925103997932572 0.79602543266837045 0.5804395722275445 185 200 194 0.38268722209517525 432 240 483 136
20080 -1.1300663396003088 0.84629332764249454 1.9843569896173185 163 124 103 0.48951459087791749 440 107 483 160
20081 -1.1024738921202981 0.90652073552159929 2.2015458372653529 141 109 89 0.91863866451585285 441 108 483 163 443 190 446 204
20083 -0.41496615756145344 0.44987481170931842 0.54928162495825483 0 0 0 1.7731302540833536 441 173 485 267
20085 -0.27669552869952951 0.31817356081310144 0.85295727882167938 159 153 146 0.4726064042113311 440 43 483 75 446 38
20087 -0.63831081963357206 1.8173159587378553 0.76702477411066838 166 120 76 1.9439747829088645 410 38 471 235 470 70
20088 -0.7070362900053101 1.5416659811052786 0.88552992370812822 222 196 196 0.39666375921518388 411 204 412 100 471 283
20089 -0.67654923144662171 0.86206620871639783 0.61124591136509399 219 218 212 2.0408933590154916 472 230 471 333 470 260
20090 0.41928577864222238 0.45626929858587972 1.3970178467649781 212 173 111 0.74817781140902662 472 340 471 372 470 297
20091 0.16868771221317444 0.44558916137486837 1.5141923144855784 198 181 167 1.1698929080472322 472 373 471 416 470 359
20092 0.4430143348572117 0.48860497830941191 1.3612901558698354 197 153 94 0.11672704284685415 472 361 471 418 470 361
20093 0.28608444635663594 0.45456545629657968 1.5245995042528822 123 64 46 0.43746375263373977 472 404 471 445 470 422
20094 -0.6585536152271847 0.57456725039321654 0.37564908436926914 222 236 231 0.14174126813768287 440 3 442 2 486 2
20096 -0.27471838246800401 0.32867825566808795 0.66605893790391524 212 215 210 1.0913722014587819 440 17 441 10 442 14 445 103 482 20
20097 -0.12574165230232565 0.17915226721365449 0.73896191677569534 105 105 103 0.070792948725970958 440 18 442 16
20099 0.16368635026068021 0.41710794695987158 1.6143350714705267 102 45 29 0.90227873619139354 437 143 442 71
20100 0.14601998290944018 0.44708484483719768 1.6375907856949494 160 123 112 0.8955829258266691 441 50 442 75 443 145 447 95 448 85
20101 -0.6529906928646465 0.18221783939677733 1.6835916096423758 76 37 22 0.27067117609980895 436 114 442 81
20102 -1.0437632544602993 0.3050926385351691 1.5868937699073411 155 130 123 0.86920047713333359 438 74 442 84
20105 -0.25898002824902744 0.25136868890794667 0.76815862050456973 206 215 209 1.3174922493752348 440 31 442 105 445 115 447 76 448 113 449 71 450 16 482 28 481 129
20106 -0.21244170202255003 0.20905264354844583 0.96870174083261884 158 168 162 0.6232499831350623 441 24 442 112 443 58 445 52
20107 0.50683487088509527 0.40418431101446162 1.4591770936151149 103 62 4 0.30213423052176608 440 136 442 119 443 133 446 145 448 53 449 35
20108 -0.14356582709163476 0.26907635046346856 1.0274000431170007 69 42 23 0.55752207094254214 441 71 442 138 443 160 445 169 444 70
20112 0.60197163068669801 0.50959423860377207 1.4130004718088607 201 194 184 0.27749722443555869 442 159 443 185
20113 0.52769272599279615 0.39736340384590729 1.4962774805901748 105 60 8 0.41648908868093942 439 183 442 178 443 207
20114 -0.10481361142151935 0.27572835391641887 1.0199981879695947 90 70 64 0.96778198484200695 442 189 445 194 446 142 482 195
20115 0.38643441712342835 0.44500641929574131 1.5663232514885406 125 92 45 0.96796708469916681 440 195 442 193 443 223 445 219 446 220 444 119 447 157 448 181 449 169 447 180
20118 0.15930384373770792 0.58141718351171534 1.5637980109712986 0 0 0 1.8325689473869993 441 164 483 251
20120 -0.70053478050410711 0.69070596002606743 0.40525512390925889 114 124 119 0.24027309091477175 442 8 443 13 445 101
20121 -0.30768279391548059 0.27542979209917468 0.71626078503100143 209 215 210 0.23709833975685199 442 20 443 23 446 20 447 11 448 24 449 70 450 12
20122 -0.11265110009142924 0.19685866863580753 0.82896003332239465 106 104 105 0.14517671824985282 442 25 443 31 445 114
20123 -0.13261898921769921 0.18362686745151635 0.84388487458443273 168 171 170 0.77802277886843141 442 27 443 35 445 33
20124 -0.094486805418845479 0.26289331308120756 0.85763207209925496 168 171 170 0.4408869381252597 442 28 443 36
20125 -0.75029833862074624 0.84061332747906958 0.6146389689488152 71 63 53 0.51906122405487276 439 28 443 40 445 37
20126 -0.11907238508086269 0.23738677809218611 0.98346247345725912 72 66 66 0.17920757665832981 442 110 443 54
20127 0.6019049777344555 0.45808011217196143 1.4272942084269511 115 91 53 0.68468271079592513 440 62 443 70 446 55 486 154
20128 -0.88551426268890909 1.4183815387413024 1.9331654686746609 103 56 43 2.8784422065368078 438 76 443 96
20129 -1.1360075391911042 -0.21252750353405309 1.3888792302248059 101 54 40 0.57930963460188178 483 37 443 99
20131 -0.29634618406351404 0.24891777623889388 0.58420808141444724 100 110 106 0.54903413910572996 485 17 443 111 446 192
20133 0.47053334732273988 0.49606029364204079 1.6786927220920225 132 129 110 1.209706483148633 441 45 443 142 486 69 484 88
20134 0.17560160363532559 0.42997966052414138 1.5849150665026157 154 115 105 1.2725339656907164 441 106 443 144 449 98
20135 -1.1808541068820964 1.0158616693822051 1.9742121933319263 184 166 163 0.98561189460752907 439 133 443 147 446 203 448 186
20137 0.62652733815550343 0.4453189015979398 1.564797932669189 193 184 179 1.3534103901634627 439 199 443 164 444 57 440 137
20138 0.43409318385574097 0.50828103810949343 1.6344941858545778 173 163 143 0.50645990532201257 442 144 443 171 487 90
20140 -0.19076089547594188 0.18218015728053763 0.88468476549153008 172 180 176 0.58113572835118354 442 156 443 182 444 86
20141 0.47313598561056031 0.51290849683672091 1.7823183940159861 172 168 162 0.48413871518789359 442 163 443 188 444 74 448 182
20142 -0.6183086231632684 0.53728045612637343 0.36753864368210482 180 195 190 0.77346293948434575 442 166 443 191 445 205 447 185
20143 0.4909835715392164 0.73106244807328191 1.4188715440185087 194 189 184 0.34729068181695788 442 160 443 203 444 133
20144 -0.58357637656668282 0.67346486701886721 0.55090388386869438 178 193 184 0.91398529501260839 442 186 443 214 445 208 446 207 444 105 447 166 448 191 449 155 450 162 486 201
20145 0.42424311767348322 0.47819131980238627 1.3826112669595052 214 174 122 0.24236364714215786 442 191 443 220 444 134 448 213
20146 -0.25128717050258098 0.11923724643242345 0.58205569561619919 102 98 99 0.45838391680419477 440 212 442 197 441 138 443 225 444 139
20147 -0.1611860828889374 0.16745424489558658 0.8999640594103081 100 100 100 0.44368408947170956 442 201 443 228 445 231 444 126
20149 -0.19688536946708357 0.20833757551270163 0.77355865852071592 175 186 176 1.0559979485111037 442 217 443 237 445 251 446 247 444 153 447 218 448 230 450 198
20150 0.11245221156400892 0.47024619509893151 1.7297500859460251 122 55 36 1.6612470086517763 485 239 447 161 448 185 450 59 220 88 218 257
20151 -0.57334172753037393 0.58168872467957444 0.36904471996031402 166 181 176 1.7172564208479539 442 222 443 252 444 171
20155 0.46440049092698577 0.46619821838388203 1.4063038688821357 145 106 59 0.69133526224907094 435 68 437 53 438 37 439 114 440 68 442 48 443 131 439 149 441 76 442 117 448 126
20156 0.38456643633120535 0.5666444736113575 1.4167870715277076 113 103 83 0.48169829981323642 439 117 442 140 443 163 437 55 438 40 440 76
20157 -0.89703803761709022 -0.099980201238746735 1.5870496956583899 157 140 130 0.9921289348283493 439 132 443 146
20159 -0.23684396744880556 0.020471012931151694 0.59972259533047334 199 201 203 1.8154438587668831 484 10 445 11
20160 -0.30473371482352513 0.34209541470554028 0.72659799383856993 203 192 185 1.088593809356238 443 27 484 32 445 25 446 130 447 114
20161 -0.26831403937417314 0.31183565328415791 0.78357232095594997 181 194 186 0.49416173288108234 439 26 445 34
20162 -0.20111997863240338 0.22622098004635244 1.0114648123812209 62 36 26 0.65643027076856708 443 61 445 55 444 47
20163 0.39222513157539796 0.45930157394258708 1.3983493174718677 154 117 71 0.28500700070037222 485 144 445 66
20164 0.41260336952362692 0.41539551051232293 1.5200044965391108 189 166 130 0.07869401717249043 442 62 445 80 446 79
20165 -0.72378616697111442 0.18537316523745337 1.7237211290272163 152 128 121 0.49312110104310991 439 131 445 86
20167 -0.26338151880081623 0.19860804303144924 0.71221013219493079 174 180 178 0.963900796502277 442 133 445 111 446 127 448 108
20168 -0.12612289008959615 0.19124601343190725 0.89092400482854772 86 92 93 0.30155386705794107 443 44 445 125 446 30 444 43 447 78
20169 0.53514462368124049 0.40090421259945969 1.4343173670498026 129 87 31 0.51271277696844264 485 148 445 131 448 125 449 31
20170 -0.33404360651220089 0.025453036110136388 0.56774810353131522 158 160 160 1.6428123574961357 443 110 445 162 444 40 447 107 448 165
20173 -0.88599971621186369 1.8424071369955657 0.84290610492994511 201 178 171 1.1886695237444203 442 139 445 171 446 178 444 52 446 69 447 127 448 159 450 93
20175 0.51209829472281776 0.47353885508805427 1.7351080481935197 173 170 167 0.66826717648725387 442 67 445 184
20177 -1.028115481714672 0.92237519085990016 0.86456206028075777 142 103 91 2.03429624119011 442 54 445 198
20178 -0.69705803063883676 0.63732237282243287 0.42866513069722145 194 205 201 0.22745539751112756 443 194 445 206 446 224 444 103 447 186 448 188 449 153 450 174
20179 -0.52412268971816212 0.53291169661389537 0.41574247373321532 116 133 131 0.58946308090966282 443 210 445 225 446 223 444 122 449 150
20180 -0.27975536902264109 0.27462429155193524 0.66244631406429533 128 139 137 0.31175271811489991 443 213 445 226 446 226 447 187 448 203 449 172 450 173
20181 0.44519607529450694 0.56380213075903418 1.3589630839981524 135 111 68 0.16399239073550884 443 201 445 234 444 132
20183 -0.1362077342616603 0.18574760693425041 0.79920966290044582 98 103 104 1.416656381169179 442 200 445 250 444 152 450 175
20185 -1.0002014559621588 0.98422924974686787 0.77105891466404419 195 192 188 0.9766200304921181 440 226 441 159 445 263
20189 -1.1862702428431944 0.9407562106949795 1.9117098355852693 95 86 81 2.2995746700616899 439 79 442 152 443 104 445 152 440 106 483 214
20190 -0.70592198914547311 0.67111999186249205 0.5685972679085548 78 85 83 1.6659922348057881 441 88 445 166 439 174 442 155 446 171 448 118
20191 -0.44436332748789842 0.74947544935645105 1.3584122415906887 107 54 34 1.1593131023157652 442 233 443 263 439 259 440 247 444 178
20192 0.54497429957991206 0.55822935470291213 1.4691249898592236 91 72 48 1.3905650903052131 429 350 438 234 442 223 483 255 486 270
20193 -0.013698818357308004 0.26973619918100922 1.7839135117895648 163 157 154 1.9576051057688706 445 277 446 268 448 256 447 245 449 218 450 220 444 175
20194 -0.52723719646749456 0.55366133503218462 0.44007611148276737 106 125 121 0.50200729092751439 442 130 446 3 448 107
20195 -0.72703305578247657 0.81832996110197631 0.65197702889571973 145 143 134 0.88038346321957983 440 41 446 41 444 44 486 24
20196 0.55084389462708949 0.41911286556617516 1.3940415061515563 220 207 191 0.24991409645040275 443 69 446 52 449 27
20197 -0.89659369294771174 1.8684854676134597 0.86874086607357803 172 131 134 0.58632572493610546 445 133 446 73 449 46
20198 0.44939334556115612 0.54311262849840369 1.4744885130061167 162 139 112 0.59594188830598116 445 72 446 75 449 39
20199 0.40570270378140305 0.45668349121417018 1.6442957757066388 129 128 104 1.393194575113208 445 144 446 88 448 79 450 96 448 142
20200 0.17295959161427241 0.44060213884915972 1.6267282739430127 115 51 38 0.69469957360882839 443 91 446 97 444 33
20201 -0.58365830561394394 0.46727112155828188 0.33768639047839 156 166 164 0.38706708601160755 445 160 446 117 448 2 449 0
20202 -0.2890207658238757 0.22019301308513367 0.6350909799640706 172 186 181 0.58453347076214368 443 113 446 122 447 5 448 13
20203 -0.28142176954622106 0.31697401451255081 0.68073418263606589 104 108 105 0.28897951708667563 445 21 446 124 449 69 450 70
20204 -0.57503351617927878 0.61002993732261734 0.53898541010852075 160 171 167 0.55217424735055864 445 105 446 126 448 109 449 105
20205 -0.23565139446557951 0.25792576156670932 0.77246935484811652 125 134 128 0.76293758124520061 445 113 446 131 447 12 449 14
20206 0.32689547305763894 0.4735420178998046 1.4609064728463605 164 161 140 0.36821538924765607 445 175 446 148 444 71
20207 0.37976578779752757 0.4943996893720623 1.580504576662521 158 127 100 0.37997252651785712 445 82 446 156 447 90 449 87 450 51 448 75 221 80 219 107 218 98
20208 -0.20281738642136091 0.2906406140576494 0.86091748817237279 142 154 147 1.3683238991926503 445 192 446 172 447 79 448 153 450 117 449 135 220 214 219 242 218 205
20210 0.54686315898167903 0.43404687473102566 1.6244586740874973 122 120 106 1.2175994405531652 443 170 446 184 444 95
20211 -0.63308307703416722 0.6206798676208215 0.34417788512017744 96 106 102 0.55280114327775132 445 188 446 190 444 77 443 151
20213 -0.11492507368799725 0.35569627373957724 1.6763149906984049 147 122 115 0.72867876080112637 445 223 447 183
20215 0.39936542658198942 0.5104191939760967 1.4004719008525577 103 66 20 0.18601853934471402 445 214 446 213 447 177 448 201 449 142 450 151 217 231 218 253
20216 -0.28326802718957683 0.26888890353177791 0.66101460496411912 127 138 133 0.2387573767731373 445 227 446 227 447 188 448 204 449 173
20217 -0.80777128870341286 1.6390320361374147 0.63831874735222549 212 152 153 0.35077600568239742 445 230 446 229 447 193 448 208 449 179 450 177
20218 -0.12819183460038983 0.27959227134535641 1.0299492696987378 85 61 54 0.99375217472537936 445 258 446 230 444 157 447 195 448 200 450 125
20219 0.63706627674736693 0.53668223355554945 1.4072297528560436 195 195 195 0.65764120627123224 445 257 446 237 444 158 447 224 448 233
20220 0.21676563731882018 0.40205453216087178 1.2878935588555387 184 188 178 1.1764789512298188 445 260 446 238 447 197
20221 -0.31622481326611135 0.32148138985049085 0.77271190110006838 107 64 51 1.2119045085276745 442 209 446 248 447 220 448 221 449 174 449 197 450 187
20222 -0.8716370161929321 1.4216181886975188 0.67882842804521271 218 213 200 0.99447756176284563 445 254 446 253 444 129 447 227 448 241 449 204 450 203
20224 -1.1158200172629407 1.0131625660222312 2.1001591576972078 132 103 88 1.9855094336669192 430 118 432 277 436 130 438 155 439 165 483 162 446 163 440 110 442 97
20226 -0.53013433242621433 0.60259990739358615 0.52934732255635797 225 232 230 1.1998326976359286 446 10 444 7 449 11
20227 0.53926134352156285 0.71694396192346099 1.3839452732047 199 194 186 0.73742876026177095 446 50 444 19 447 84
20229 -0.2071594486067371 0.13444995201880025 0.71644751040661303 128 128 124 0.69950028687473809 445 108 444 41 448 17
20231 -0.92543930131846663 1.589002564788907 0.68319168642577843 232 211 207 1.7221265618573376 445 50 446 143 444 69 449 83
20232 -0.52844828398360943 0.60975877313201154 0.47417401999359066 121 137 134 0.74610514445491904 443 193 444 79 447 142 449 68 448 11 450 68 486 167
20233 -0.60504807566257923 0.62642967969733221 0.47291325945367596 129 140 136 0.89660397912932077 445 102 446 165 444 80 448 18
20234 0.48415304468536713 0.43232255653380103 1.4300965315824756 174 136 87 0.28358608806837166 443 186 444 89 448 172
20235 0.3695506112174145 0.55241979905790894 1.4083910905157626 130 117 97 0.56154595182316869 445 196 444 90
20237 -0.52810992091832798 0.60426492311197322 0.51582294309544097 209 218 216 0.71251419562168383 443 196 446 225 444 123
20238 -0.34564481294628852 0.30092008783362856 0.69858795101236382 199 200 197 1.1427106496356734 442 199 444 124 450 161
20240 0.54104564751932482 0.53431303699339716 1.4055942160091703 122 87 41 0.37956393076736789 445 243 444 145 448 207
20241 -0.0098538743120404233 0.33204435869261384 1.0390023900864926 192 192 192 2.0792608262117023 442 220 443 243 445 255 444 164
20242 0.51336983686439097 0.37533603313820724 1.4875431181092302 80 51 14 0.77537000400574929 432 331 437 183 484 238 485 195 439 182 440 192 444 91 442 177 443 206 486 189
20243 -0.26410021425008129 0.2016831450412134 0.6177615428965183 135 139 135 1.1112178456219 440 213 441 139 442 198 443 226 444 140 445 249 446 246 447 217 448 229 449 186 450 185
20244 -0.01278304854429446 0.27398835427654561 1.2463326722407631 92 43 26 0.84389076974131483 438 228 439 248 440 240 441 170 442 224 443 255 444 173 445 272 446 263 447 238
20245 -0.72022374559262947 1.6460368280178832 0.66906555300195658 176 167 166 0.25808809197254995 446 43 447 21 450 32
20248 -0.53001397600592126 0.52472424204939061 0.34671351890205238 134 140 138 0.028352069082558128 443 177 447 72
20249 -0.75776658154290955 0.61915453709482882 0.44603942773977201 171 178 174 0.71739340943065155 446 14 447 74 448 110 449 107
20250 -0.28253472878158192 0.34297198935247053 0.72497503815895592 99 105 102 0.94762424946800972 446 129 447 75 448 111 449 106 450 71
20251 -1.0885623272058613 1.5452958794259668 2.1011473249955936 172 154 148 1.1984745638706542 446 110 448 163
20252 -0.2909944577711634 0.29194667706541877 0.65287048680816473 195 202 199 0.66885555405799657 445 104 447 109 449 8
20253 -0.19129430923966007 0.328874965487996 0.75032248310912697 127 137 132 0.52383214039784098 446 169 447 112 448 166
20254 -0.91776679345539058 0.94586513468294309 0.75277862287317998 106 48 30 1.2215274202571169 442 172 447 125 448 202 449 42 450 135 450 172
20255 -0.28725739494096847 0.20842362131394365 0.69089079428406219 137 143 140 2.01016300294582 441 63 444 107 447 144 449 128 450 141
20256 -0.28725739494096847 0.20842362131394365 0.69089079428406219 137 143 140 2.01016300294582 441 64 444 106 447 145 449 127 450 140
20257 -0.56622560867605709 0.69595462242591377 0.60653430068964265 231 228 220 0.97902506272571321 445 112 447 148 448 31 448 193 449 156 450 74
20258 -0.13033651919151434 0.21268194675442836 0.9121282778749098 102 108 107 0.12440737493885133 446 210 447 168 448 194 449 157
20259 -0.18617001877086339 0.17799555769865499 0.94801918701384913 89 94 93 0.43718617955260852 446 211 447 169
20260 -0.18617001877086339 0.17799555769865499 0.94801918701384913 89 94 93 0.43718617955260852 446 212 447 170
20262 -0.73168708098312407 1.9081863789392681 0.91506602408600257 198 194 190 0.71340166590359289 446 254 447 212 448 225
20263 -0.98347453456177703 0.98399923413680135 0.78153852745391283 197 167 154 1.1916535574157068 444 160 447 214 448 237
20264 -0.19970203019216812 0.29983638458757833 0.84509373154747747 127 138 131 0.61540226890289884 445 268 447 235 448 247 449 211 450 212
20265 -1.0555018000206753 0.88130896358167576 2.1237001210717459 112 73 54 1.2770685130993289 446 265 447 240 448 250 449 214 450 217
20266 0.39377794067433641 0.50849819435082 1.7468152652128364 157 149 137 1.0315615373095763 439 227 443 235 447 181 432 337 434 301 435 241 433 171 439 218 440 210 441 136 442 181 443 209 446 199 444 97 449 171 450 157
20267 -0.62514318632791077 0.78533278418304375 0.65160971691657876 115 75 57 1.3716151725681101 443 239 444 142 447 192 445 228 446 209 444 108 448 195 449 158 450 145 486 246 487 289
20268 -0.26391783560596899 0.35928043497388473 0.70316537176826566 98 105 102 0.31819910757725878 447 9 448 21
20269 -0.015280318358560615 0.90147618919172767 0.8458089354108308 96 70 60 0.38099515252460325 446 24 448 27
20270 -0.32675795403360963 0.30317936723479838 0.72486498964015089 211 209 204 0.82404015784173767 446 23 448 28 450 72
20271 -0.55023389128247235 0.67145441440863474 0.60286678787748249 95 70 60 0.58125928556430595 447 115 448 30 449 17 450 17
20272 -0.67194802374652074 0.77970256096579349 0.66397136069178997 105 68 49 1.3307384024804509 446 37 448 38 449 74 450 23 217 59
20274 0.40788994512010546 0.49037735541415878 1.431849867791964 91 58 17 0.14688704878571857 445 134 448 56 449 81
20276 0.42737695799856223 0.43082150765185595 1.5471619670239265 123 110 74 0.31528035586688458 446 80 448 67 450 44
20277 -0.24693560747516904 0.14488602674288659 1.1879565523915441 75 18 2 0.40449449908220014 442 59 446 152 448 70
20278 0.06078892272600523 0.42520423772951182 1.4350102189397913 174 148 133 0.98384701473422742 446 221 448 78 450 94
20282 -0.40113286436487949 0.73554484657172781 2.3084324686125464 111 88 81 2.115723526739326 448 99 447 97 450 158 222 129 220 229
20283 -1.2433485440897925 0.77255211540443125 1.774766203532284 175 153 140 0.067591670774206081 447 64 448 101
20284 0.20445375995443235 0.39332473192882195 1.4853070300384903 101 64 43 0.2148070676276749 447 132 448 140 446 86
20285 -1.0639196946213949 0.86994842340899659 0.83866687212313018 141 100 87 1.4584801413702728 447 45 448 145 449 123
20286 0.62318053703900633 0.55143390200992093 1.426194529342999 206 195 189 0.21611377942457644 446 175 448 154 449 77
20288 -0.19129430923966156 0.328874965487994 0.75032248310912641 129 136 130 0.52383214039783554 446 170 447 113 448 167
20289 -0.16475370605072542 0.28481954697010131 0.87832939428528933 143 158 149 1.100495618150982 447 118 448 168 449 132 450 115 222 274 223 246 221 256 220 213
20290 -0.82674745018362616 1.2050232957331397 0.6277456609531078 207 194 187 1.7910940321194744 447 172 448 170 449 161 450 81
20291 -0.93528668822571304 1.0935424113574053 0.63233311066559861 208 183 169 1.3227961704328273 447 152 448 171 449 140 223 244
20292 0.66593702798367238 0.58063554845890075 1.4389544716032534 201 193 191 0.49078852368378767 445 232 448 196 450 166
20293 -0.0087432827708297141 0.37692696671657211 1.0729898460550922 198 192 193 0.743413833500569 447 194 448 197 449 136 450 148
20295 0.17494921007307898 0.49797379755843102 1.7308961321449465 123 64 49 1.6367464863624359 443 247 448 218 450 183 223 243 221 215 224 89
20296 -0.44685678976643128 0.25660956899743126 1.7229425784606436 86 50 37 0.64908782632812867 446 235 448 219 449 184
20298 0.07457565275272561 0.16280075153820911 1.3287851062425167 154 144 122 0.89309742160116334 446 257 447 230 449 205 450 204
20299 -0.98911420258915461 0.98965618138689304 0.78187370951658364 193 173 157 1.9842678681865054 444 159 445 261 447 213 448 236 449 206
20300 0.024969951286850599 0.33056655203308022 1.1607168717364691 108 55 40 0.75567098326102167 447 228 448 240 449 198
20304 -0.83480411863685144 1.6530777244032571 0.80273052731246686 215 199 191 0.64561084800371193 447 86 448 62 449 85 450 87
20305 -1.1953062371075069 1.346914535281317 1.8319660088383776 177 161 154 1.55335101127046 447 55 448 97 449 56
20306 -1.1828957459007003 1.2402980401415178 1.8787533622021169 113 91 82 0.87253448014125723 447 58 448 162
20307 -0.93227584688784015 1.8254498604110105 0.75630087598361473 204 197 189 0.22865368990104495 447 229 448 242
20308 -0.2408831908755463 0.25371145721149763 0.87976608689199698 131 141 134 0.23310168455915736 442 109 449 21
20309 -0.98731004757591323 0.82831467937708436 0.56136808431268237 118 71 54 0.00061696575320688545 448 47 449 30
20310 0.50109671346973961 0.39082949429835312 1.4390955951714475 199 158 107 0.52201054071479325 445 63 449 33 450 35
20311 0.35713816694264566 0.56230637089278757 1.3924638806633465 161 138 118 2.5753497207167948 447 33 449 36
20312 -0.92662823854281562 1.7859878050036504 0.84913802809795447 163 139 140 0.086167162697183358 446 74 449 45
20315 -0.10821206623382994 4.6194568651368328 -0.97863595927654734 179 179 177 0.53823288368911304 446 0 448 0 449 64 450 64
20316 -0.25069086729218393 0.21875049179442929 0.98071947477139232 79 56 42 0.98037377944832149 440 56 447 24 449 78
20317 0.37029989664828117 0.39885062509096203 1.6523836215936756 153 155 135 0.31252277162380171 447 92 449 94 450 100
20319 0.50643068228966781 0.46717164578548759 1.5743106644464486 159 152 129 0.30363244090328562 447 156 449 114 446 219 450 134
20320 -0.061149951113277493 0.31080622732917612 1.383179963569795 90 58 44 0.71075082772514409 446 198 449 122 450 98
20321 -0.9110801935144931 1.7617208661747725 0.70877545590291779 221 201 193 1.2909503327648502 443 124 449 144 450 42
20323 0.53755456845210192 0.68100181714445229 1.4123802821255607 140 116 78 1.9175742055864877 447 208 449 178 450 149
20324 -0.61575702180133418 0.43505463490187407 0.5107480415950354 192 198 194 0.52298689357940853 448 239 449 203 450 202
20326 -1.2604028225491308 0.60607744576431355 1.9467692324720964 109 85 71 1.0241520500769363 448 150 449 63
20328 -0.79310708507745287 1.6669908518827461 0.86687513830392626 217 196 190 0.82439605240030833 448 177 449 117 450 90 450 155
20329 -0.87628220703412751 1.3231202535275659 0.82496441030861389 176 123 115 0.31276832211593136 448 158 449 118 450 136
20331 -0.10184923073437538 0.28082203805094763 0.71238540966586728 121 126 125 0.52715790822908826 448 10 449 6
20332 0.06678361066356106 0.44093362761910893 1.7135655726863608 0 0 0 2.6697514482940301 441 81 447 49
20333 -0.77972168760776783 1.4471739881381112 0.66266963756159292 174 165 160 0.78764869175681496 448 199 449 162 450 169
20335 0.42202019247964895 0.50522716385104771 1.5891126873051202 128 101 66 0.61996685935794205 447 42 450 50 220 66
20336 -0.89183515934225022 1.1318308720663388 0.83774368800749288 188 146 127 0.66628289751855685 448 69 450 54
20338 -1.304231387627784 0.9456090006100919 1.5990944311240518 183 163 155 2.9788653545837134 448 96 450 62
20339 0.43285625268697098 0.51342939162984813 1.3111042604757361 202 193 181 0.74241543797012721 446 48 449 75 450 76
20340 0.50003606146655455 0.64302919112710744 1.3734824704227582 121 108 85 0.17282783227556706 446 176 450 78 447 122
20341 -0.82025881486394736 1.5918683009673689 0.84277512840628632 218 188 180 0.55287531025158898 448 65 449 116 450 91
20342 -1.0248862392984899 1.042507536041138 0.89557351419717501 189 162 153 0.2649884738537151 448 81 450 104
20343 -0.23206059976801599 0.29183757123049237 0.66670388795747715 169 179 175 1.5293398615433351 448 151 450 110 226 153 222 222 220 158
20344 -0.67251386889628884 2.0635210370597741 0.69851999634911577 209 148 148 1.3199099713900471 446 42 450 128
20345 0.50643068228966504 0.46717164578548459 1.5743106644464469 154 150 122 0.30363244090326719 447 155 449 113 450 133 446 218
20347 -0.91597704141590253 1.3242580051195896 0.98273718912701125 191 173 164 1.5459514966630772 449 183 450 196 220 254 221 271 219 300
20348 0.021906810053142996 0.31665241454470267 1.4458881207630208 166 143 133 0.60835284936583145 448 243 449 207 450 207
20350 -0.3577913151887579 -0.30668420334027069 1.5363531765276384 0 0 0 1.3465904250986607 442 230 443 260
20351 -0.28529412671462862 0.29084695317218207 0.69251074366552046 187 192 187 0.85623893391436268 441 11 442 101 443 115 446 168 444 82 450 111 445 110 444 65
20352 -0.76783375774491913 0.8030067036517794 0.64413415369563265 70 46 34 0.89972347392545127 484 272 439 221 442 202 443 229 445 242 446 251 447 206 450 192 448 222 449 176
20353 0.1545850340166495 0.3432633678934302 1.0585485188434682 140 140 142 2.1801344187937821 443 261 445 276 446 267 444 176 447 241 448 252 221 297 220 286
20354 -0.23504842254409805 0.19629975219729309 0.59321261293325944 158 164 161 0.16564825624143001 445 9 450 4
20355 -0.2618407891008056 0.15871713529220149 0.72622236796916961 197 213 212 0.33881712536452002 485 33 486 34 484 28
20358 0.40669164190703971 0.44948239815228297 1.4209989438596977 116 78 27 0.57856396825543366 485 194 486 156 487 205
20359 0.13163578538130155 1.2237379377459516 0.97738295156413557 199 205 204 0.46129907837298156 438 25 486 177
20360 -0.085931237390500209 0.31151824687826102 1.017585027199774 75 42 32 1.9040016481148445 440 233 486 264 441 162
20361 -0.84714384838807133 0.97159586007859589 0.67679318846119063 137 88 66 1.3058338825059748 440 238 441 167 486 266 487 321
20364 0.5193049841934585 0.39157566286195405 1.4481248758490404 186 149 97 0.29425967876634024 480 37 481 59 482 67
20365 0.56835283849781459 0.61694357056606286 1.7158934887499055 197 196 185 0.82301929878605917 480 61 481 89
20366 -1.1798811011352868 0.61441727881167196 1.8232137088194578 136 117 113 1.8476420727234024 479 62 480 65 481 99 482 150
20367 -0.24452641233788378 0.16532321233724426 0.68360946785467758 204 214 212 1.2273703068180053 480 3 481 119 482 161
20368 0.41767544255632261 0.51214287583607021 1.3384909191809338 127 95 65 0.40371863284032372 480 30 481 140 482 63
20369 0.45418577930048587 0.45051692317036357 1.4782541395117565 142 112 71 0.42860957133899935 480 41 481 144 482 175 483 121
20370 0.21519197643049603 0.46606569949321841 1.5743108952721878 145 102 89 0.69401046627646046 360 44 480 53 361 36 481 147
20372 0.43216137232801127 0.55517446266691428 1.6363381370874515 196 160 134 0.85533622456469915 484 84 481 152 482 88
20373 -0.60304750322819434 0.64680638414393066 0.62338912409912361 175 190 187 1.1871993664404785 480 122 481 170 482 166
20374 -0.56725767831096441 0.63214849497497305 0.4835265051970522 205 223 219 0.34982615436889536 483 165 481 226 482 240
20375 -0.92534630498056392 0.71021660201475911 2.1135121658439338 0 0 0 0.84325104570859688 479 224 480 231
20376 -0.12305212186742741 0.52060534679115522 0.88319070077559858 150 170 161 1.7742794132975295 483 237 481 282
20378 -0.84603911798594122 0.68622384297003725 2.0534406803392939 177 125 95 0.35247736385236694 480 237 481 287
20379 -0.8763666177743572 0.80202626739515515 2.0754567027564916 161 113 86 1.5850455191816402 362 222 481 313 480 250
20381 0.31391809952277072 0.57334536991355822 1.6418175995692261 129 57 35 0.86521536184532666 479 262 480 275 481 330
20383 0.47287868198039473 0.44122428905975675 1.4040784781896314 127 86 34 0.97534164742320473 339 155 340 169 341 122 342 160 343 128 345 140 346 133 344 94 348 126 349 93 350 34 351 54 353 30 356 28 481 54 357 15 479 95 480 34 423 248 426 278 427 224 429 244 428 247 430 180 431 219 432 258 434 204 434 248 435 188 436 162 437 134 438 117 439 52 440 69 441 30 483 81 482 64
20384 0.48476136457222935 0.43780085101849359 1.4736613031484607 109 68 23 0.95306631410445597 365 163 366 155 369 188 371 145 378 173 479 173 381 140 388 132 389 137 481 240 484 215 486 127
20385 0.4658159601158805 0.43785287424192476 1.435631583276 112 70 19 0.37780548911519812 342 52 346 42 347 45 352 44 353 31 356 79 362 30 479 38 481 60 430 74 432 196 436 165 437 59 484 67 485 62 440 73 483 84 482 68
20386 0.25514173596689294 0.48560964098780701 1.5132730155890395 91 53 40 0.81006757214245118 359 37 360 89 479 49 355 53 481 68 437 139 438 50 484 75 440 87 486 129 487 86
20387 0.48470845952429009 0.43542516681139604 1.475198791306092 96 59 15 0.74218565158065786 432 262 436 193 481 239 365 162 366 154 369 187 371 144 378 172 381 141 479 172 388 133
20388 0.018721219020516384 0.17628112720319455 1.2942446692005769 82 43 29 1.0978532784121591 480 227 481 284 349 215 350 204 352 236 351 226 353 222 354 188 355 195 357 222 362 192 359 156 360 177 361 197 364 191 363 174 365 189 366 193 368 205 369 225 367 120 367 132 370 210 371 185 372 212 373 224 479 230 374 211 377 201 375 201 376 193 378 212 379 225 382 197 380 126 381 173 384 190 386 168 385 158 387 140 388 163 389 169 383 133 481 301 480 228 482 272
20389 -0.32891480026085873 0.016720754133440589 0.86841124597659669 140 146 147 2.7156468066389761 352 1 482 31 355 1
20390 0.52752434230966938 0.38594933961382477 1.5810076883642545 121 114 94 0.21685622497568219 483 35 482 82
20391 -0.92010552212183594 0.38230949993990143 1.6742979055928682 176 145 134 1.3587841452459539 430 104 481 82 482 95
20392 0.13379406976748387 0.8109492030065043 1.8521481581136769 168 140 125 1.7579373280921871 480 188 481 103 482 104
20393 -0.21064701599615415 0.41657726591873528 0.86792867927572193 186 186 177 1.6891550174862322 481 133 483 118 482 133
20394 -0.19792009251880074 0.29343794487319652 1.0114722286650315 88 71 63 1.6142022233680982 480 92 481 41 482 135
20395 0.56591980559608268 0.37649398695589881 1.476657535650292 135 96 36 0.25274678738160339 481 181 484 70 482 141
20398 -0.61721697727851454 0.68182100706431892 0.56525380019431215 205 220 219 0.65516341854871796 432 286 480 177 482 218
20401 -0.15855514574809401 0.31065106234520101 1.1103555521881452 140 87 69 1.5272993018326881 481 283 483 248 482 277
20402 0.13430255670466221 0.54355600356056777 1.5634195411783263 142 115 102 1.3397584162743261 481 321 483 252 482 290
20403 0.26594926309162575 0.64293972180996128 1.2826757306762977 0 0 0 0.084453549690625185 479 261 481 329
20404 0.69514482342854378 1.407474524752673 0.68343110501626603 208 210 213 1.7089972482979303 483 261 482 300
20405 0.37236582502268895 0.52403767633865594 1.7381025958711145 74 43 32 1.4471451298866234 430 227 440 162 442 74 486 131 482 180 431 104 481 90
20406 0.33019615761840226 0.47948629603867948 1.4713364211376223 91 86 69 1.7120511129157621 481 241 483 196 426 281 427 251 429 286 428 249 430 246 431 244 432 353 431 279 434 300 435 273 433 183 436 267 437 222 482 246
20407 -0.18646028151390678 0.34141066647636409 1.1722662061612907 86 31 12 2.2625894103818114 483 79 482 173
20408 -0.23196606976094661 0.35309150288380942 0.82845638695763635 203 209 205 0.28566384284446789 481 201 482 193
20409 0.48639175994603007 0.57128520468765986 1.3943624328553901 126 100 64 1.0866491999060697 105 110 478 97 491 67
20410 0.5318440877452919 0.35379705794591049 1.5312967548818124 193 186 167 0.93372692487816367 103 190 491 92 490 205 282 105 281 139 280 4 279 199
20411 -0.58187372900719869 1.6371667820442504 0.85156647283537101 146 87 68 0.24094150626556146 104 289 491 105 490 11
20412 0.57374636677033808 0.46508091925707007 1.4529436040907775 126 98 53 0.10684547983473054 478 152 491 154
20413 0.38142930047664841 0.47303211936979661 1.56275577442083 165 132 105 1.0711741471201432 104 70 491 166 490 131 282 113 489 111 488 202 281 88 280 169
20414 -0.24026397140448996 0.34851530063576125 1.7680704847428399 131 96 82 1.0605464037987042 105 22 491 174
20415 0.26342972471538806 1.2494854599102141 1.1512360112377871 157 119 77 1.5245552802811584 103 248 105 216 491 191 104 280 488 166 487 188
20416 -0.875351971873089 1.7182409082715486 0.71761513448855285 235 214 210 1.0160727453309628 491 233 490 210 489 249 281 255 280 260 279 316
20417 0.22071990027461721 0.51807625717023353 1.7343739226314996 136 91 83 1.3838852913333495 105 226 491 263 490 293 282 121
20418 -0.9768598405012181 0.59263950773826202 2.2624045747138419 193 180 171 1.8457828439608579 477 274 491 289
20419 -0.52702527779531094 0.21306783296873574 1.8058279874254222 190 177 169 0.85859853530440056 103 119 491 290
20421 -0.8386086515980945 1.0754761583930945 0.730909586981635 127 75 53 1.5563288045421311 105 350 491 348 490 382 282 318 489 351 488 365
20422 -0.26891619618817725 0.15896834837567597 0.74481916689882655 229 228 226 0.71638916968458777 241 2 240 2 239 160 238 192 236 160 235 185 276 218 275 201
20423 -0.21380561462530615 0.21735107935581949 1.0695290598602358 136 87 65 0.32824408662236687 241 128 242 16 240 10
20425 -0.69222557569177845 0.63578103507697636 0.4313337092195057 103 123 124 0.45594492291763761 241 48 240 51 239 40 238 43 237 47 235 44
20428 -0.91437953679424844 0.8618866698941885 0.73538229007495837 92 36 11 2.0421366000112675 244 70 240 91 237 79 236 54 234 79 277 74 276 70 276 151 231 148 228 68 274 154 274 155
20429 -0.56082505515515813 1.5100487978925361 0.96719853127593081 116 91 77 0.23957832192004574 242 190 240 100
20430 -0.48150121307163246 1.595787573038981 0.82878860251150455 118 69 17 0.34443849870140192 244 82 240 106 238 102
20432 -0.26312925939189163 0.14859746372741156 0.69465432343941458 134 138 135 0.94325546141081074 241 121 240 137 239 158 238 221 237 210 236 185 235 183
20433 -0.2454859824424821 0.25463527124721502 0.80325781227894177 130 148 139 0.60654680035839881 241 4 240 142 239 103
20434 -0.6545751488027155 0.58648617458533481 0.39925341899331479 220 232 234 0.22539093301792831 242 163 243 55 240 170 244 40
20436 -0.72966509034454052 0.73993857994844425 0.58871853459410051 175 172 165 1.3463140298896816 241 60 240 211 238 259
20438 0.13617125816490103 1.3847377790253232 1.0996620418450271 184 142 90 1.39075046859233 241 266 242 293 240 247 238 235
20439 -0.88286160186649598 1.7860774770657823 0.66897948988315148 220 205 200 0.70194736885384723 242 276 240 261 236 158 235 166
20440 -0.27418728669865422 0.23176831670204368 0.6192890095420065 124 160 158 0.58021301342613041 241 250 240 263 239 235 237 237
20441 -0.65567026065744305 1.6720902607280823 0.66892604797410871 104 69 45 0.67994934170418786 241 289 240 278 239 254 238 243 237 231
20442 -0.57541181535732366 0.76024659180959053 0.65182814965027092 116 135 136 1.3972330005067006 241 315 240 310 239 288 238 280 237 257
20443 -0.81582545734638268 1.5865721982113996 1.2701614987720842 147 134 126 0.23937369382414719 242 328 239 283
20444 -0.29590896721072418 0.23068689866412928 0.55620725253270475 90 129 134 1.3797422889388375 241 322 240 322 239 307
20445 0.15607674639364313 1.2700215561920096 0.98308289002280169 105 64 25 1.0787453359441606 241 326 242 358 240 324 239 303 238 304 237 295
20446 -0.12571494324805549 1.4376155323013562 1.0266689503906272 166 157 155 1.8582896924763084 241 337 240 336 239 318
20447 1.3603234465678762 2.2660252452161003 2.039156012694038 195 193 192 1.9838830795300917 241 338 240 339
20448 0.31029948290338044 1.3582360340606139 1.1115150899998429 102 73 50 1.7828568440321786 491 120 490 33 489 24 487 147
20449 -0.92452626738796562 1.0802342406364627 0.66685899628373457 128 103 90 1.6670540047472138 105 38 490 36 104 38 281 81 280 122
20451 -0.56045720461578352 0.61732037369253445 0.53241964524758201 210 241 233 0.34847973500974505 491 39 490 53 282 144
20452 -0.56660961962605283 0.62771386737665957 0.55540478587809028 96 140 125 0.33199940429388691 491 42 490 57 282 76
20453 0.10105014703679223 1.1135969323212733 1.1390016573838433 79 35 14 1.6006974207913769 491 38 490 64 282 126
20454 -0.24388066683758741 0.17255312932565264 0.78210550465602913 210 224 224 0.53253655860485472 491 75 490 97 489 81 488 75
20456 0.30502079412496913 0.6370773180406939 1.5754214634823172 185 172 162 1.4761161589815821 491 255 490 121 282 180 489 238 488 106
20457 0.42282261581626218 0.42510402539537195 1.5194506349035708 146 123 61 0.32039280995858072 491 89 490 128 282 12
20458 0.39723144758566037 0.42433196338439866 1.510759158092551 228 205 154 0.009440021024347392 477 122 490 130
20459 0.41667722062064139 0.41310841428725636 1.5242996315209887 221 201 146 0.29136946868311181 491 91 490 133 282 13 489 199
20460 0.44223018876768494 0.40853039962716048 1.5390551450760137 173 158 128 0.41182423319841072 476 186 477 230 490 134
20462 0.35037726517178497 0.49597294042242918 1.7323572623049135 142 86 65 1.3063550574901259 478 96 490 143 488 251
20464 -0.8157077316538569 1.696863709738762 0.80250039361617631 156 148 141 1.5967901691573056 491 102 490 157 282 91 489 154 281 80 280 156 279 94
20466 0.15858122391705737 1.3185272122682721 0.97627089619594198 177 141 86 1.4027735653791638 103 251 477 215 490 163 488 24
20468 0.031668227392380163 1.3247642314910035 1.0572411585712544 125 100 75 1.608250931305198 491 123 490 167 282 183 281 152
20469 -0.49245182358933176 0.5933761170609243 0.48970726965010652 206 220 210 2.0167060944320663 491 31 490 174 282 188 489 25 281 122
20470 0.27347627903614191 1.2783629058390831 1.1967961848348159 162 124 82 1.83400473973897 104 244 491 130 490 176 282 118 466 221 489 166
20471 0.090954862431690098 1.1063112474835415 1.1114853128716455 174 93 78 1.2204637502338118 491 35 490 180 282 31
20472 -0.23858462635794139 0.16376224429822417 0.73222732272478519 198 225 224 0.75730649601541677 491 151 490 194 282 56 489 177 488 177 487 155 280 19
20473 -0.11407347072436765 0.28666087123686923 1.0417372300910794 35 12 2 0.92103165218100547 491 82 490 196 282 50
20474 0.31039248334743219 0.47097193142638005 1.4278541060147338 119 101 85 0.20967908825567702 491 161 490 199 489 191
20475 -0.65084872489491519 1.7233372103607445 0.71604938934515672 133 103 76 0.11969005632472074 491 231 490 209 489 3
20476 -0.72967814263410891 1.5697583133230228 0.83802973224154054 205 162 160 0.84175103061293777 491 180 490 218 282 196 489 214
20477 -0.71143060893050425 0.73200854087815848 0.58091125268958022 185 189 184 0.22865915667801651 491 136 490 227 282 159
20479 -0.56589879709323943 0.67656621375587223 0.6108635433711529 230 247 237 0.69474409633127931 491 143 490 229 489 276 488 307 281 41 280 109 279 139 278 62
20480 -0.25034762449697262 0.18352185579326161 0.68491631993081759 211 227 227 0.41273689441516498 491 204 490 234 282 130 489 226
20481 0.47968432906145964 0.62072506358285828 1.3616926961754341 126 123 113 0.45408410236922586 491 249 490 237 282 172
20482 0.58274187888555273 0.61375085303259191 1.4210887593364272 190 182 175 0.3903278562596359 491 149 490 238 282 104
20483 0.39256988513207014 0.56226170108624351 1.3819161801489372 129 112 75 0.60645719362828698 491 207 490 241 489 185 488 94
